# .PCD v0.7 - Point Cloud Data file format
VERSION 0.7
FIELDS x y z intensity index
SIZE 4 4 4 4 2
TYPE F F F U U
COUNT 1 1 1 1 1
WIDTH 1410
HEIGHT 1
VIEWPOINT 0 0 0 1 0 0 0
POINTS 1410
DATA ascii
26.876419 -6.135876 1.281652 36 4
18.676535 -4.188900 0.994957 53 4
17.889057 -4.004160 0.708759 55 4
17.695826 -3.960753 0.416205 64 4
17.691896 -3.962420 0.115687 57 4
16.671526 -3.721617 -0.090261 35 4
14.593690 -3.228076 -0.141966 25 4
12.967379 -2.841743 -0.177855 24 4
11.583324 -2.512813 -0.191327 36 4
10.402656 -2.232098 -0.188959 10 4
9.451609 -2.005973 -0.186588 14 4
8.641223 -1.813241 -0.178612 68 4
8.024072 -1.666567 -0.184374 7 4
7.469863 -1.534799 -0.183130 8 4
7.000990 -1.423336 -0.184115 22 4
6.616790 -1.332063 -0.191871 8 4
6.245494 -1.243771 -0.189698 9 4
5.916979 -1.165652 -0.187730 32 4
20.315762 -4.627940 2.695165 28 4
20.381098 -4.646698 2.350635 29 4
21.447325 -4.906468 2.036580 6 4
21.190252 -4.847735 1.665702 40 4
20.736382 -4.741473 1.304932 20 4
21.971575 -5.042560 0.923832 2 4
21.831535 -4.979242 4.309749 45 4
22.306076 -5.096445 3.988008 6 4
22.183840 -5.070467 3.588298 19 4
22.213488 -5.080939 3.207455 21 4
23.350401 -5.357673 2.902166 38 4
22.975859 -5.271061 2.480904 40 4
26.721918 -6.176495 2.206556 47 4
22.963339 -5.274940 1.690994 0 4
26.911409 -6.230244 1.282158 46 4
18.686569 -4.250045 0.994935 54 4
17.767561 -4.030962 0.713529 56 4
17.675497 -4.011357 0.417110 61 4
17.640554 -4.005536 0.119077 57 4
16.667467 -3.772790 -0.090559 32 4
14.564123 -3.266178 -0.139433 24 4
12.962216 -2.880354 -0.178029 24 4
11.544564 -2.538685 -0.186471 35 4
10.403238 -2.263583 -0.189981 12 4
9.441405 -2.031683 -0.185648 15 4
8.631642 -1.836408 -0.177625 71 4
8.018767 -1.688725 -0.184181 6 4
7.468760 -1.556135 -0.183866 7 4
6.996454 -1.442280 -0.183950 23 4
6.601292 -1.347062 -0.188569 7 4
6.245258 -1.261254 -0.190670 9 4
5.916970 -1.182098 -0.188778 37 4
20.270046 -4.680922 2.693577 1 4
20.335295 -4.699896 2.349607 35 4
21.113268 -4.892868 2.026861 41 4
20.899010 -4.843715 1.662311 34 4
20.542604 -4.759749 1.306130 4 4
21.881781 -5.090376 0.926006 1 4
21.704039 -5.017278 4.294586 42 4
22.286026 -5.162208 3.988120 13 4
22.051737 -5.108572 3.576762 35 4
22.147009 -5.135140 3.203691 38 4
23.403193 -5.444746 2.907547 28 4
22.935843 -5.334291 2.480337 5 4
22.861065 -5.319513 2.083276 0 4
26.746513 -6.272044 1.745950 63 4
26.953831 -6.326791 1.282643 59 4
18.758547 -4.326496 0.993573 54 4
17.871246 -4.112152 0.709377 55 4
17.631742 -4.056174 0.419357 62 4
17.565859 -4.042671 0.124226 56 4
16.663242 -3.823974 -0.090852 33 4
14.557624 -3.309813 -0.139491 23 4
12.953075 -2.918014 -0.177699 23 4
11.532658 -2.570950 -0.185609 33 4
10.392212 -2.292268 -0.189082 12 4
9.442594 -2.060171 -0.186832 11 4
8.633421 -1.862349 -0.178968 77 4
8.017190 -1.711800 -0.184832 5 4
7.463806 -1.576548 -0.183687 7 4
6.991859 -1.461211 -0.183784 22 4
6.600746 -1.365677 -0.189462 6 4
6.241236 -1.277826 -0.190525 9 4
5.913198 -1.197640 -0.188641 34 4
20.297804 -4.751855 2.697025 28 4
20.452242 -4.793134 2.356781 42 4
20.500071 -4.808078 2.008096 3 4
20.875879 -4.904240 1.662752 19 4
20.651751 -4.851884 1.306221 0 4
20.293589 -4.766230 0.960578 0 4
21.741966 -5.095345 4.302756 0 4
21.575491 -5.057651 3.903491 28 4
22.128241 -5.197389 3.587041 29 4
21.991396 -5.166995 3.192234 35 4
23.281298 -5.489117 2.901014 28 4
24.811586 -5.871084 2.576217 0 4
22.890762 -5.399615 2.085388 27 4
26.683926 -6.342272 1.746053 30 4
26.821188 -6.380379 1.283773 42 4
18.740942 -4.381309 0.994150 55 4
17.877602 -4.169973 0.709077 55 4
17.560738 -4.094018 0.423171 60 4
17.564657 -4.097648 0.123808 58 4
16.643387 -3.871326 -0.089691 36 4
14.531690 -3.348640 -0.137385 31 4
12.947666 -2.956604 -0.177868 24 4
11.524496 -2.604121 -0.185316 36 4
10.388762 -2.322814 -0.189460 13 4
9.432225 -2.085829 -0.185888 11 4
8.623693 -1.885468 -0.177979 71 4
8.019330 -1.735829 -0.186328 6 4
7.458787 -1.596946 -0.183507 7 4
6.990967 -1.481067 -0.184598 22 4
6.592649 -1.382428 -0.188258 6 4
6.240888 -1.295319 -0.191494 9 4
5.909377 -1.213170 -0.188504 35 4
20.565350 -4.883126 2.716912 8 4
20.177380 -4.789060 2.344238 47 4
20.892000 -4.971358 2.021827 33 4
20.902998 -4.977324 1.663922 43 4
20.298843 -4.828834 1.307990 30 4
20.270720 -4.824877 0.961286 19 4
21.833435 -5.187146 4.318533 10 4
22.484222 -5.353223 4.017715 19 4
22.049969 -5.248110 3.581166 39 4
22.419666 -5.344058 3.231304 2 4
22.597960 -5.392180 2.856052 0 4
24.719334 -5.927299 2.573171 2 4
22.865881 -5.466341 2.085749 53 4
26.756927 -6.446239 1.748110 50 4
26.874681 -6.479955 1.284229 52 4
18.715410 -4.434105 0.994899 54 4
17.879881 -4.226901 0.708936 55 4
17.563248 -4.149971 0.422742 59 4
17.540060 -4.146814 0.125151 59 4
16.631113 -3.920536 -0.089252 38 4
14.513358 -3.389279 -0.136141 31 4
12.938286 -2.994217 -0.177532 23 4
11.508553 -2.635330 -0.183879 38 4
10.389042 -2.354328 -0.190476 12 4
9.437048 -2.115300 -0.187777 10 4
8.621501 -1.910468 -0.178541 64 4
8.006227 -1.756052 -0.184439 6 4
7.457479 -1.618283 -0.184239 7 4
6.986250 -1.499980 -0.184429 23 4
6.595727 -1.401988 -0.190197 8 4
6.236758 -1.311877 -0.191347 8 4
5.901803 -1.227747 -0.187183 31 4
21.114662 -5.087789 2.756173 7 4
20.289968 -4.881644 2.351228 0 4
20.659237 -4.978619 2.015350 45 4
20.092577 -4.837733 1.653024 2 4
20.163361 -4.858847 1.308966 19 4
21.716484 -5.257378 0.930270 0 4
23.357531 -5.642292 4.536820 57 4
22.709791 -5.481922 4.048161 42 4
22.172178 -5.349234 3.596312 50 4
22.182478 -5.355315 3.212826 35 4
22.596325 -5.463804 2.857721 1 4
24.665686 -5.992826 2.572081 2 4
22.844671 -5.533950 2.086240 3 4
26.825653 -6.549741 1.750123 54 4
26.757238 -6.536533 1.285308 56 4
18.550205 -4.451264 0.998664 60 4
17.823872 -4.269083 0.711101 57 4
17.581051 -4.209925 0.421424 58 4
17.523050 -4.197838 0.125911 57 4
16.618687 -3.969708 -0.088810 38 4
11.670712 -2.708508 0.181708 0 4
11.640753 -2.702611 -0.009272 0 4
11.500188 -2.668425 -0.183581 38 4
10.377741 -2.382931 -0.189570 13 4
9.434141 -2.142869 -0.188245 12 4
8.626831 -1.937422 -0.180656 64 4
8.004430 -1.779124 -0.185086 8 4
7.452329 -1.638661 -0.184055 7 4
6.981474 -1.518878 -0.184259 24 4
6.587523 -1.418700 -0.188990 7 4
6.236297 -1.329378 -0.192314 8 4
5.901588 -1.244192 -0.188226 36 4
21.199020 -5.176677 2.763641 43 4
20.599493 -5.025752 2.368203 3 4
20.643446 -5.040288 2.015909 42 4
19.945547 -4.863724 1.651663 23 4
20.349371 -4.970929 1.308794 41 4
22.222595 -5.457288 0.919574 2 4
23.738844 -5.814641 4.593926 0 4
23.850391 -5.847056 4.191378 7 4
22.278542 -5.447215 3.609853 38 4
22.092131 -5.402836 3.207066 40 4
22.590588 -5.534478 2.859131 21 4
24.453222 -6.017260 2.562976 0 4
26.528534 -6.555402 2.207129 1 4
26.704197 -6.604846 1.749401 29 4
22.030405 -5.404264 1.302805 0 4
18.687113 -4.545339 0.995903 54 4
17.895481 -4.343918 0.708206 59 4
17.544502 -4.256051 0.423236 57 4
17.471123 -4.239813 0.129311 59 4
16.617676 -4.021832 -0.089452 35 4
11.639013 -2.736110 0.184604 63 4
11.624491 -2.734120 -0.007967 74 4
11.495552 -2.702489 -0.183851 39 4
10.381641 -2.415450 -0.191220 12 4
9.423524 -2.168464 -0.187296 13 4
8.613076 -1.959498 -0.178884 58 4
8.010123 -1.804167 -0.187421 5 4
7.447115 -1.659022 -0.183871 8 4
6.976639 -1.537761 -0.184088 23 4
6.586740 -1.437318 -0.189878 5 4
6.228343 -1.344954 -0.191048 7 4
5.901319 -1.260649 -0.189269 35 4
21.862364 -5.417046 2.810924 1 4
20.409578 -5.041866 2.359960 46 4
20.403080 -5.043390 2.009170 44 4
20.038483 -4.951457 1.653777 44 4
20.337481 -5.032686 1.309336 44 4
21.671350 -5.384423 0.931705 1 4
21.465036 -5.299862 4.275226 0 4
22.405687 -5.547842 4.016226 32 4
22.380646 -5.544913 3.623001 4 4
22.094275 -5.473939 3.209345 24 4
22.503510 -5.584043 2.854973 20 4
22.164768 -5.499327 2.448793 0 4
26.546446 -6.645574 2.209120 42 4
26.671661 -6.682482 1.749970 7 4
22.059719 -5.482415 1.303245 20 4
18.517933 -4.560448 0.999751 60 4
17.885576 -4.398014 0.708538 52 4
17.453737 -4.287836 0.428171 58 4
17.473124 -4.295647 0.128614 61 4
16.616491 -4.073990 -0.090089 37 4
11.607248 -2.763539 0.187499 255 4
11.596621 -2.762533 -0.005155 255 4
11.490807 -2.736548 -0.184120 36 4
10.377793 -2.446011 -0.191589 14 4
9.424251 -2.197014 -0.188469 13 4
8.606850 -1.983503 -0.178665 55 4
8.000607 -1.825285 -0.186374 5 4
7.441837 -1.679367 -0.183685 7 4
6.975495 -1.557617 -0.184897 22 4
6.585895 -1.455947 -0.190766 8 4
6.224058 -1.361474 -0.190897 7 4
5.893605 -1.275166 -0.187944 36 4
20.066118 -5.013084 2.689143 4 4
20.370407 -5.096608 2.359346 39 4
20.147429 -5.040948 2.001917 45 4
19.929979 -4.986672 1.652979 39 4
20.309927 -5.090326 1.309936 27 4
20.250921 -5.077937 0.962570 4 4
22.609447 -5.669474 4.440413 3 4
22.219078 -5.570353 3.995989 43 4
22.155249 -5.557121 3.601770 40 4
22.635773 -5.687375 3.258541 29 4
22.420193 -5.634134 2.851081 17 4
22.151192 -5.566712 2.449600 11 4
26.502193 -6.719585 2.209102 10 4
26.391415 -6.694566 1.746945 48 4
22.092617 -5.561827 1.303679 48 4
18.518940 -4.619558 0.999924 60 4
17.887091 -4.455160 0.708414 53 4
17.625454 -4.388658 0.417949 63 4
17.501928 -4.358693 0.125873 60 4
16.607431 -4.124136 -0.089998 39 4
11.598477 -2.796919 0.187807 220 4
11.603196 -2.799968 -0.006852 117 4
11.485951 -2.770605 -0.184385 39 4
10.370028 -2.475557 -0.191317 12 4
9.413469 -2.222554 -0.187516 10 4
8.608130 -2.009508 -0.179997 56 4
8.002359 -1.849381 -0.187860 5 4
7.428969 -1.697688 -0.181672 10 4
6.970537 -1.576481 -0.184723 23 4
6.577530 -1.472593 -0.189555 6 4
6.223432 -1.378971 -0.191861 8 4
5.896924 -1.292607 -0.190167 41 4
20.262289 -5.129505 2.704307 5 4
20.215296 -5.120198 2.352859 37 4
19.880402 -5.033854 1.994277 44 4
20.003033 -5.069863 1.654827 39 4
20.514029 -5.209939 1.309733 45 4
22.228033 -5.672617 0.920167 7 4
22.384670 -5.681989 4.411702 44 4
22.508417 -5.718649 4.034533 42 4
22.233742 -5.649024 3.612503 44 4
22.429031 -5.704777 3.242746 36 4
22.248089 -5.660064 2.841082 39 4
22.137402 -5.634065 2.450413 0 4
26.488628 -6.801651 2.210098 23 4
26.435888 -6.791831 1.748644 4 4
21.904987 -5.582509 1.304886 56 4
18.720613 -4.732557 0.995773 54 4
17.942461 -4.526855 0.706152 55 4
17.619261 -4.442984 0.417989 57 4
17.414915 -4.390926 0.131911 58 4
16.598213 -4.174267 -0.089904 38 4
11.616483 -2.837497 0.185097 50 4
11.621139 -2.840565 -0.010047 0 4
11.480985 -2.804658 -0.184648 38 4
10.365984 -2.506106 -0.191682 10 4
9.414015 -2.251122 -0.188686 10 4
8.601746 -2.033497 -0.179774 54 4
7.992707 -1.870450 -0.186810 6 4
7.423570 -1.717975 -0.181483 14 4
6.973008 -1.597352 -0.186509 22 4
6.572842 -1.490207 -0.189391 6 4
6.219039 -1.395474 -0.191708 10 4
5.892804 -1.308085 -0.190023 38 4
19.964773 -5.113791 2.685476 41 4
20.291611 -5.205504 2.358128 50 4
19.953196 -5.117121 1.997736 40 4
19.728321 -5.059392 1.651603 47 4
20.204121 -5.191624 1.311321 36 4
20.643097 -5.314026 0.954551 2 4
22.378113 -5.752002 4.413959 45 4
22.889053 -5.893662 4.084481 1 4
22.373329 -5.758081 3.629724 54 4
22.434025 -5.778156 3.245387 39 4
22.314899 -5.749593 2.847551 32 4
22.350922 -5.762981 2.462793 0 4
26.447786 -6.876379 2.210216 4 4
26.368052 -6.859097 1.748714 46 4
21.875719 -5.644998 1.305541 56 4
18.856136 -4.829061 0.993051 55 4
17.904972 -4.573802 0.707568 54 4
17.705387 -4.522450 0.412689 57 4
17.408703 -4.444635 0.131811 59 4
16.588833 -4.224380 -0.089806 38 4
14.481406 -3.653320 -0.137685 34 4
12.913988 -3.228652 -0.179973 30 4
11.475908 -2.838708 -0.184909 33 4
10.354223 -2.534574 -0.190766 11 4
9.414463 -2.279715 -0.189853 12 4
8.595286 -2.057466 -0.179549 53 4
7.986762 -1.892508 -0.186603 7 4
7.421865 -1.739272 -0.182205 14 4
6.964186 -1.615185 -0.185352 24 4
6.571822 -1.508826 -0.190274 5 4
6.214596 -1.411963 -0.191553 9 4
5.884951 -1.322540 -0.188696 36 4
19.921608 -5.165851 2.684177 14 4
20.402256 -5.300844 2.365170 41 4
19.767324 -5.130046 1.992736 46 4
19.982273 -5.192255 1.656119 28 4
20.357386 -5.298517 1.311308 52 4
21.451494 -5.602465 0.937364 0 4
20.624315 -5.344721 4.167814 1 4
22.452757 -5.848018 4.033428 22 4
22.282133 -5.805066 3.622663 36 4
22.496435 -5.867409 3.253066 32 4
22.773991 -5.947143 2.881143 50 4
22.301828 -5.821480 2.461857 16 4
22.169384 -5.788818 2.071463 0 4
26.300045 -6.926006 1.748787 2 4
21.637976 -5.650162 1.306914 60 4
18.574755 -4.812030 0.999310 60 4
17.986830 -4.653405 0.704250 59 4
17.783478 -4.600383 0.407844 57 4
17.383085 -4.493054 0.133175 60 4
16.579292 -4.274476 -0.089705 34 4
14.473663 -3.696802 -0.137716 35 4
12.907578 -3.267215 -0.180119 30 4
11.474540 -2.873807 -0.185737 30 4
10.338569 -2.561944 -0.189210 13 4
9.407227 -2.306235 -0.189602 13 4
8.596315 -2.083506 -0.180875 54 4
7.984517 -1.915588 -0.187239 4 4
7.412581 -1.758498 -0.181102 23 4
6.962786 -1.635049 -0.186155 23 4
6.570740 -1.527454 -0.191156 8 4
6.217503 -1.430492 -0.193627 6 4
5.880738 -1.337981 -0.188550 36 4
19.959070 -5.240085 2.688465 31 4
20.427797 -5.373430 2.367908 40 4
20.479145 -5.391054 2.017201 26 4
19.857916 -5.221848 1.655098 34 4
20.013021 -5.268228 1.313001 32 4
21.244961 -5.614183 0.942038 3 4
22.979250 -6.062155 4.506021 117 4
22.679188 -5.982975 4.064431 0 4
21.995266 -5.797370 3.594943 4 4
22.143650 -5.842153 3.224515 6 4
22.093618 -5.831961 2.836053 28 4
24.677921 -6.552656 2.584549 1 4
26.592731 -7.088371 2.217927 2 4
22.358940 -5.916641 1.691890 0 4
21.550707 -5.695669 1.307767 62 4
18.428509 -4.830788 1.002655 51 4
18.083757 -4.737856 0.700330 57 4
17.768906 -4.653136 0.408346 56 4
17.303526 -4.526363 0.138630 59 4
16.558079 -4.321342 -0.088515 36 4
14.458119 -3.738133 -0.136881 35 4
12.901046 -3.305768 -0.180263 29 4
11.495932 -2.915317 -0.189980 37 4
10.341848 -2.594555 -0.190846 11 4
9.399905 -2.332733 -0.189350 12 4
8.585919 -2.106400 -0.179872 46 4
7.985960 -1.939729 -0.188719 5 4
7.414491 -1.780836 -0.182734 17 4
6.965053 -1.655966 -0.187936 24 4
6.562162 -1.544004 -0.189941 6 4
6.201854 -1.443861 -0.190125 7 4
5.883833 -1.355475 -0.190767 39 4
20.065418 -5.334019 2.697548 0 4
20.241524 -5.386816 2.359854 48 4
20.565979 -5.481358 2.021207 19 4
19.953026 -5.312421 1.657313 4 4
19.861563 -5.289997 1.314030 1 4
20.592014 -5.498942 0.956312 4 4
22.906590 -6.115973 4.499067 24 4
22.415442 -5.982271 4.034711 44 4
22.980793 -6.144530 3.701727 43 4
22.025343 -5.880407 3.216424 51 4
21.418036 -5.713650 2.791195 5 4
21.387743 -5.708720 2.418365 49 4
26.273916 -7.085368 2.208950 0 4
22.205437 -5.945774 1.690544 41 4
21.636629 -5.789435 1.308035 62 4
18.640324 -4.949467 0.998295 63 4
18.145695 -4.813207 0.697793 55 4
17.804138 -4.719928 0.405961 57 4
17.177843 -4.546222 0.147589 58 4
16.540560 -4.369201 -0.087684 41 4
14.453930 -3.782645 -0.137338 36 4
12.894387 -3.344313 -0.180404 26 4
11.528597 -2.960223 -0.195928 37 4
10.337419 -2.625062 -0.191202 13 4
9.396291 -2.360281 -0.189803 11 4
8.598108 -2.135667 -0.183522 14 4
7.976036 -1.960699 -0.187664 6 4
7.408830 -1.801077 -0.182540 16 4
6.956057 -1.673738 -0.186775 25 4
6.564678 -1.563681 -0.191868 9 4
6.200953 -1.461346 -0.191083 7 4
5.875842 -1.369866 -0.189438 36 4
20.113773 -5.412313 2.702650 7 4
20.347422 -5.482100 2.366724 41 4
19.687220 -5.297750 1.993416 2 4
19.774624 -5.325917 1.655498 23 4
19.714005 -5.311963 1.315040 36 4
20.693827 -5.594445 0.954343 0 4
23.184586 -6.268783 4.542155 55 4
22.511103 -6.081810 4.049600 59 4
22.325808 -6.033076 3.635117 46 4
21.400867 -5.774299 3.164009 2 4
21.273228 -5.741657 2.783030 26 4
21.377337 -5.774830 2.419376 48 4
23.509640 -6.384860 2.119369 0 4
22.055811 -5.975097 1.689253 57 4
21.549046 -5.834503 1.308893 60 4
18.916945 -5.088153 0.992546 58 4
18.176575 -4.880227 0.696485 58 4
17.773827 -4.768363 0.407362 55 4
17.174955 -4.600376 0.147206 58 4
16.530556 -4.419180 -0.087573 43 4
14.445770 -3.826076 -0.137358 35 4
12.891420 -3.383940 -0.181042 26 4
11.519212 -2.993382 -0.195607 35 4
10.329091 -2.654481 -0.190917 11 4
9.392585 -2.387829 -0.190255 11 4
8.610188 -2.165032 -0.187169 6 4
7.969808 -1.982704 -0.187451 6 4
7.399364 -1.820226 -0.181432 16 4
6.954463 -1.693612 -0.187573 27 4
6.559704 -1.581255 -0.191698 7 4
6.207378 -1.480965 -0.194268 7 4
5.871480 -1.385278 -0.189289 38 4
20.111959 -5.476629 2.704300 6 4
20.921331 -5.712830 2.397589 53 4
20.896040 -5.709096 2.034446 40 4
19.903799 -5.426891 1.658240 45 4
20.296778 -5.543489 1.313621 52 4
20.672270 -5.655186 0.955029 10 4
22.840908 -6.245360 4.496590 36 4
23.045383 -6.307968 4.119099 55 4
22.344927 -6.110841 3.639822 48 4
21.328928 -5.822806 3.159929 18 4
21.308731 -5.820633 2.787378 45 4
21.408949 -5.853078 2.422555 0 4
23.523994 -6.465420 2.121200 6 4
22.259804 -6.105366 1.693205 1 4
21.699688 -5.947745 1.308961 54 4
19.108328 -5.204251 0.988636 60 4
18.276331 -4.967433 0.692440 58 4
17.678146 -4.797822 0.412539 58 4
17.271534 -4.683343 0.139241 57 4
16.505081 -4.464715 -0.086012 40 4
14.433652 -3.868388 -0.136946 33 4
12.884511 -3.422479 -0.181177 24 4
11.517330 -3.028713 -0.196423 33 4
10.324467 -2.684972 -0.191269 12 4
9.381227 -2.413184 -0.189290 12 4
8.603315 -2.189027 -0.186935 7 4
7.971022 -2.006868 -0.188924 5 4
7.401060 -1.842593 -0.183060 17 4
6.952802 -1.713491 -0.188370 17 4
6.554675 -1.598813 -0.191526 9 4
6.195289 -1.495270 -0.191879 8 4
5.867069 -1.400676 -0.189139 32 4
20.738428 -5.723782 2.749642 45 4
20.538807 -5.669237 2.379516 29 4
20.900984 -5.778211 2.035821 41 4
19.971085 -5.510827 1.660080 29 4
20.548027 -5.682440 1.313331 5 4
20.742662 -5.742729 0.953740 14 4
22.980949 -6.360075 4.520115 33 4
21.427216 -5.913031 3.920795 8 4
21.847876 -6.038929 3.589789 19 4
21.517153 -5.946568 3.178699 29 4
21.255793 -5.874253 2.785605 54 4
21.451778 -5.934931 2.426331 2 4
23.111986 -6.422058 2.108944 4 4
22.148310 -6.145227 1.692489 1 4
21.323727 -5.908603 1.310776 57 4
19.230053 -5.301441 0.986226 56 4
18.314318 -5.037393 0.690842 60 4
17.574780 -4.824487 0.418159 65 4
17.180122 -4.712122 0.145576 59 4
16.494770 -4.514606 -0.085894 38 4
14.421400 -3.910662 -0.136531 31 4
12.869860 -3.458777 -0.180310 25 4
11.522928 -3.066288 -0.198374 33 4
10.323530 -2.716570 -0.192257 12 4
9.381127 -2.441816 -0.190445 13 4
8.600132 -2.214107 -0.187475 6 4
7.960897 -2.027755 -0.187864 6 4
7.395205 -1.862791 -0.182862 17 4
6.954797 -1.734473 -0.190146 11 4
6.553293 -1.617446 -0.192402 10 4
6.186846 -1.510599 -0.190603 10 4
5.862611 -1.416059 -0.188987 32 4
20.995962 -5.866760 2.769444 3 4
20.455690 -5.711317 2.376776 2 4
21.477106 -6.015758 2.056135 35 4
20.080229 -5.607677 1.662560 53 4
22.333214 -6.275693 1.308050 54 4
20.110790 -5.623600 0.967527 0 4
23.002607 -6.441130 4.526783 38 4
21.469439 -5.994881 3.929028 15 4
22.000538 -6.154706 3.608690 53 4
21.379763 -5.975987 3.168916 0 4
21.918703 -6.138274 2.833673 3 4
22.329779 -6.263100 2.473022 39 4
23.103153 -6.494806 2.110012 0 4
22.600723 -6.350694 1.700192 1 4
21.634960 -6.069728 1.310329 53 4
19.263128 -5.373411 0.985723 50 4
18.478539 -5.145001 0.684231 55 4
17.356510 -4.816595 0.430433 54 4
17.149902 -4.758472 0.147247 59 4
16.476658 -4.562216 -0.085051 35 4
14.412828 -3.954026 -0.136543 30 4
12.862706 -3.497272 -0.180440 24 4
11.520802 -3.101679 -0.199184 33 4
10.314918 -2.745945 -0.191966 12 4
9.377155 -2.469352 -0.190889 10 4
8.600629 -2.240304 -0.188789 7 4
7.958206 -2.050826 -0.188491 6 4
7.393021 -1.884082 -0.183573 17 4
6.941851 -1.751059 -0.187999 12 4
6.548151 -1.634983 -0.192228 8 4
6.185723 -1.528083 -0.191555 8 4
5.861767 -1.432520 -0.190016 36 4
19.783897 -5.574183 2.686880 42 4
20.269123 -5.722140 2.368720 4 4
20.197506 -5.704317 2.014931 36 4
19.943651 -5.632118 1.661377 27 4
19.695419 -5.561504 1.317194 5 4
20.104483 -5.687049 0.967879 0 4
22.773247 -6.447937 4.497530 43 4
21.069710 -5.945841 3.882154 1 4
21.717836 -6.142226 3.581349 54 4
21.463972 -6.070518 3.178632 0 4
21.937508 -6.215222 2.836994 49 4
21.402485 -6.059700 2.427014 53 4
21.231998 -6.012619 2.049272 30 4
22.281658 -6.329326 1.696391 39 4
21.765230 -6.179111 1.310492 62 4
19.134987 -5.397586 0.988679 33 4
18.423950 -5.188473 0.686299 54 4
17.245596 -4.839406 0.436489 54 4
17.153948 -4.814970 0.146296 63 4
16.462215 -4.610899 -0.084565 37 4
14.396499 -3.995093 -0.135691 31 4
12.855431 -3.535755 -0.180567 26 4
11.522351 -3.138224 -0.200560 35 4
10.309993 -2.776427 -0.192311 12 4
9.369323 -2.495756 -0.190626 11 4
8.593519 -2.264269 -0.188550 5 4
7.955440 -2.073900 -0.189115 5 4
7.387037 -1.904256 -0.183372 17 4
6.940000 -1.770934 -0.188792 8 4
6.542953 -1.652506 -0.192053 10 4
6.180862 -1.544467 -0.191391 8 4
5.857207 -1.447888 -0.189863 34 4
19.804447 -5.644558 2.690139 44 4
19.937317 -5.688056 2.353168 37 4
20.175610 -5.763379 2.015409 19 4
20.025373 -5.721591 1.663471 39 4
19.942036 -5.699940 1.316935 27 4
20.603312 -5.903129 0.957400 0 4
22.714851 -6.504666 4.492769 51 4
21.012823 -5.997232 3.878033 3 4
21.568802 -6.168143 3.568201 46 4
21.318781 -6.096729 3.168176 1 4
22.345840 -6.409709 2.867529 32 4
21.413891 -6.132889 2.429234 57 4
21.216784 -6.077233 2.050038 55 4
22.257790 -6.394951 1.697004 55 4
21.738012 -6.241987 1.311172 62 4
19.439482 -5.551656 0.982356 19 4
18.640923 -5.313744 0.677586 56 4
17.142347 -4.863880 0.442099 60 4
17.123434 -4.861141 0.147972 61 4
16.451433 -4.660691 -0.084437 38 4
14.383849 -4.037249 -0.135267 33 4
12.848029 -3.574228 -0.180691 25 4
11.512407 -3.171362 -0.200227 35 4
10.301191 -2.805758 -0.192017 11 4
9.368943 -2.524422 -0.191775 10 4
8.590090 -2.289352 -0.189085 6 4
7.948856 -2.095840 -0.188895 6 4
7.380988 -1.924411 -0.183169 18 4
6.938083 -1.790815 -0.189583 8 4
6.537701 -1.670011 -0.191877 5 4
6.179625 -1.561956 -0.192341 10 4
5.852601 -1.463240 -0.189708 40 4
19.874376 -5.730232 2.696874 35 4
20.098915 -5.802159 2.363037 5 4
20.130587 -5.815363 2.015127 34 4
19.961348 -5.767288 1.663384 45 4
20.455765 -5.921723 1.315847 45 4
20.328369 -5.886425 0.963516 12 4
21.192722 -6.116527 4.277790 0 4
21.001411 -6.062186 3.879618 0 4
21.301788 -6.157293 3.542464 45 4
21.329967 -6.169667 3.171513 11 4
21.909374 -6.349887 2.839118 2 4
21.455614 -6.215526 2.433038 0 4
21.281670 -6.166296 2.053483 58 4
21.158743 -6.132561 1.681426 0 4
22.181166 -6.448389 1.310359 0 4
19.414257 -5.607228 0.983107 9 4
17.897810 -5.147202 0.706979 71 4
17.134586 -4.916951 0.442170 59 4
17.096603 -4.908336 0.149359 62 4
16.444302 -4.711627 -0.084666 41 4
14.367264 -4.078200 -0.134411 26 4
12.840505 -3.612689 -0.180813 26 4
11.506145 -3.205629 -0.200461 36 4
10.296073 -2.836220 -0.192358 10 4
9.360937 -2.550799 -0.191507 12 4
8.579076 -2.312132 -0.188067 7 4
7.942205 -2.117758 -0.188672 5 4
7.378600 -1.945692 -0.183877 21 4
6.932394 -1.809561 -0.189393 7 4
6.525014 -1.685227 -0.189606 6 4
6.167316 -1.576057 -0.189947 9 4
5.844295 -1.477452 -0.188372 39 4
20.199511 -5.895094 2.721507 31 4
19.969814 -5.827925 2.357927 0 4
20.222965 -5.909527 2.019438 29 4
19.874292 -5.805563 1.662952 40 4
20.838333 -6.106676 1.315206 24 4
20.225676 -5.921160 0.965936 9 4
21.654413 -6.327482 4.347617 33 4
20.982195 -6.124794 3.880258 3 4
21.156759 -6.182264 3.529712 35 4
21.378992 -6.254457 3.178222 4 4
21.420097 -6.270949 2.806947 12 4
21.275572 -6.230251 2.425406 0 4
21.323271 -6.248757 2.056174 57 4
21.066711 -6.173416 1.680973 64 4
22.401546 -6.589207 1.310279 39 4
19.415613 -5.670959 0.983288 33 4
17.778406 -5.168423 0.711615 52 4
17.077051 -4.954682 0.445123 59 4
17.058203 -4.951872 0.151621 62 4
16.440807 -4.763742 -0.085252 35 4
14.373347 -4.126148 -0.136132 28 4
12.829063 -3.649964 -0.180432 26 4
11.495990 -3.238716 -0.200123 36 4
10.294628 -2.867849 -0.193334 10 4
9.360370 -2.579486 -0.192651 11 4
8.579236 -2.338358 -0.189372 8 4
7.939217 -2.140817 -0.189292 5 4
7.368704 -1.964663 -0.182760 20 4
6.930348 -1.829441 -0.190182 7 4
6.527030 -1.704972 -0.191522 6 4
6.165973 -1.593526 -0.190894 12 4
5.839595 -1.492763 -0.188216 42 4
20.177025 -5.954079 2.721860 47 4
19.867441 -5.861257 2.354195 16 4
20.078297 -5.930556 2.015845 34 4
20.035364 -5.920766 1.666281 45 4
20.292078 -6.004486 1.317491 5 4
20.466515 -6.062606 0.961000 23 4
21.816004 -6.448528 4.374434 48 4
21.023466 -6.206200 3.888511 3 4
21.129570 -6.243021 3.529549 43 4
21.804455 -6.456860 3.218276 2 4
22.013746 -6.525973 2.850611 16 4
21.263470 -6.296199 2.426455 53 4
21.288221 -6.307744 2.056318 40 4
21.043352 -6.235192 1.681564 64 4
22.395967 -6.661158 1.310922 19 4
19.325134 -5.706140 0.985435 6 4
17.628515 -5.179407 0.717460 56 4
17.057556 -5.004020 0.445864 62 4
17.034918 -4.999980 0.152723 60 4
16.410526 -4.807551 -0.083310 31 4
14.379260 -4.174175 -0.137849 31 4
12.817507 -3.687201 -0.180049 29 4
11.493286 -3.274141 -0.200920 36 4
10.289307 -2.898314 -0.193670 9 4
9.348434 -2.604656 -0.191674 9 4
8.575562 -2.363431 -0.189902 9 4
7.932424 -2.162705 -0.189067 5 4
7.369896 -1.987097 -0.184376 21 4
6.928237 -1.849327 -0.190968 7 4
6.521613 -1.722427 -0.191342 8 4
6.153579 -1.607538 -0.188498 15 4
5.842136 -1.510360 -0.190420 38 4
20.184813 -6.022568 2.724353 44 4
20.001297 -5.968424 2.362710 2 4
20.082397 -5.997607 2.017232 27 4
20.180637 -6.032225 1.669395 35 4
20.334105 -6.084306 1.317930 42 4
20.386312 -6.104473 0.962939 2 4
20.082930 -5.975818 4.128233 12 4
20.924229 -6.243872 3.879170 1 4
20.973129 -6.263085 3.515572 50 4
21.244110 -6.352173 3.171118 3 4
22.168194 -6.646959 2.863587 1 4
21.254965 -6.363332 2.427705 59 4
21.439837 -6.425463 2.062729 47 4
21.012171 -6.294476 1.682041 59 4
22.428293 -6.745176 1.311454 44 4
19.276566 -5.754055 0.986685 1 4
17.638802 -5.240077 0.716942 59 4
16.976982 -5.034021 0.450145 57 4
17.045721 -5.058821 0.151210 60 4
16.395313 -4.856025 -0.082808 35 4
14.381213 -4.221079 -0.139131 29 4
12.802048 -3.723204 -0.179165 29 4
11.482917 -3.307186 -0.200577 36 4
10.283886 -2.928774 -0.194003 9 4
9.343930 -2.632159 -0.192107 9 4
8.564326 -2.386129 -0.188879 5 4
7.925561 -2.184572 -0.188840 6 4
7.363588 -2.007198 -0.184168 21 4
6.922365 -1.868042 -0.190774 11 4
6.523498 -1.742209 -0.193254 8 4
6.155790 -1.626154 -0.190557 19 4
5.837334 -1.525664 -0.190262 37 4
19.880505 -5.991914 2.704928 37 4
20.385914 -6.156499 2.384286 21 4
19.991032 -6.034398 2.015426 24 4
20.112005 -6.076615 1.669268 40 4
20.448227 -6.187549 1.318156 47 4
20.347950 -6.159273 0.963982 27 4
21.548309 -6.506775 4.343083 44 4
20.737896 -6.253328 3.858883 54 4
20.687826 -6.241244 3.487772 40 4
20.977102 -6.337064 3.149877 34 4
21.508228 -6.509956 2.819362 48 4
21.200556 -6.415926 2.426589 16 4
21.434732 -6.494428 2.063910 53 4
21.102755 -6.392505 1.684382 57 4
22.540329 -6.854994 1.311747 0 4
18.519262 -5.575515 1.003090 1 4
17.641254 -5.298432 0.716731 54 4
16.945833 -5.079372 0.451554 58 4
16.980316 -5.093474 0.155515 60 4
16.372360 -4.902023 -0.081582 36 4
14.383004 -4.268037 -0.140411 28 4
12.790261 -3.760356 -0.178777 30 4
11.483754 -3.343826 -0.201937 34 4
10.285887 -2.961642 -0.195611 11 4
9.335587 -2.658458 -0.191832 10 4
8.564232 -2.412379 -0.190180 8 4
7.926076 -2.208810 -0.190299 5 4
7.364634 -2.029663 -0.185780 26 4
6.912741 -1.885550 -0.189600 10 4
6.514287 -1.758470 -0.192025 7 4
6.146965 -1.641266 -0.189274 20 4
5.836120 -1.542127 -0.191282 38 4
19.888123 -6.059641 2.707423 50 4
20.366419 -6.217278 2.384926 34 4
19.990953 -6.100092 2.016693 47 4
20.028055 -6.115727 1.668908 28 4
20.611378 -6.307529 1.318243 35 4
20.328461 -6.220033 0.964621 12 4
20.290108 -6.173879 4.164924 3 4
20.846647 -6.356396 3.875717 41 4
20.664265 -6.301677 3.488014 55 4
20.793869 -6.347185 3.136040 61 4
21.046900 -6.432442 2.789009 47 4
21.978855 -6.736343 2.468794 45 4
21.258156 -6.508267 2.059334 55 4
21.063490 -6.449450 1.684755 54 4
21.235712 -6.508873 1.316349 0 4
18.729971 -5.704219 0.998788 6 4
17.673935 -5.366679 0.715316 52 4
16.914557 -5.124578 0.452965 59 4
16.918648 -5.128995 0.159530 59 4
16.356852 -4.950376 -0.081073 34 4
14.388415 -4.316273 -0.142116 33 4
12.782132 -3.798695 -0.178885 31 4
11.469398 -3.375621 -0.201022 34 4
10.280261 -2.992114 -0.195939 11 4
9.334651 -2.687160 -0.192968 10 4
8.556583 -2.436230 -0.189930 6 4
7.911632 -2.228240 -0.188383 6 4
7.361896 -2.050951 -0.186480 24 4
6.917819 -1.907815 -0.192340 7 4
6.508703 -1.775884 -0.191842 7 4
6.145402 -1.658716 -0.190216 21 4
5.831217 -1.557413 -0.191121 40 4
20.047316 -6.176842 2.720628 6 4
20.190973 -6.227314 2.377454 43 4
20.066681 -6.190599 2.020528 14 4
20.366169 -6.291887 1.675029 24 4
20.401268 -6.307108 1.319466 28 4
20.510292 -6.346456 0.960959 4 4
20.440159 -6.289255 4.190104 23 4
21.140043 -6.520287 3.915892 62 4
20.663225 -6.369397 3.490700 41 4
20.561491 -6.340205 3.117812 70 4
21.018940 -6.492799 2.789140 35 4
21.756182 -6.736601 2.459000 31 4
21.305983 -6.594086 2.062314 50 4
22.632679 -7.030250 1.709828 9 4
21.199905 -6.567437 1.317068 0 4
18.278486 -5.618528 1.008637 2 4
17.368160 -5.324813 0.727348 55 4
16.898342 -5.174595 0.453494 58 4
16.925175 -5.186481 0.158318 62 4
16.348764 -5.001157 -0.081281 32 4
14.382317 -4.360877 -0.142528 31 4
12.766335 -3.834550 -0.177993 27 4
11.466234 -3.411056 -0.201809 33 4
10.274535 -3.022582 -0.196267 12 4
9.329876 -2.714654 -0.193395 9 4
8.556315 -2.462502 -0.191226 7 4
7.908279 -2.251261 -0.188995 5 4
7.351687 -2.069811 -0.185357 27 4
6.911762 -1.926496 -0.192142 7 4
6.506730 -1.794488 -0.192704 8 4
6.143782 -1.676175 -0.191157 24 4
5.822637 -1.571488 -0.189780 39 4
20.114962 -6.265194 2.727423 70 4
19.886621 -6.193878 2.363242 50 4
20.024300 -6.242903 2.020397 3 4
20.369051 -6.360158 1.676029 3 4
20.419302 -6.380526 1.320004 31 4
20.513004 -6.415237 0.961127 43 4
20.337391 -6.322917 4.178753 35 4
21.062782 -6.564755 3.909422 45 4
20.726227 -6.458272 3.500307 48 4
20.613361 -6.425115 3.124876 50 4
21.157627 -6.607872 2.801054 52 4
21.157997 -6.611973 2.429591 41 4
21.277519 -6.655275 2.062738 51 4
21.421362 -6.706629 1.692237 0 4
24.074064 -7.584566 1.309141 66 4
18.310083 -5.689064 1.008162 38 4
17.218451 -5.332412 0.733177 52 4
16.817492 -5.203282 0.457778 58 4
16.973167 -5.257820 0.153917 58 4
16.340511 -5.051937 -0.081486 29 4
14.383621 -4.407980 -0.143796 29 4
12.754199 -3.871591 -0.177598 26 4
11.462953 -3.446506 -0.202593 33 4
10.264960 -3.051801 -0.195955 12 4
9.321274 -2.740908 -0.193115 10 4
8.552235 -2.487562 -0.191745 9 4
7.908561 -2.275515 -0.190447 6 4
7.345120 -2.089853 -0.185143 29 4
6.905647 -1.945159 -0.191943 6 4
6.497368 -1.810661 -0.191472 6 4
6.138456 -1.692427 -0.190984 21 4
5.821268 -1.587938 -0.190797 41 4
20.208752 -6.362837 2.736104 30 4
19.726738 -6.206472 2.356546 39 4
20.141113 -6.347987 2.025663 35 4
19.935268 -6.283297 1.670290 3 4
20.569899 -6.498343 1.320156 42 4
20.822807 -6.586478 0.954741 37 4
20.588186 -6.473151 4.218687 0 4
21.222937 -6.687541 3.932962 53 4
20.664227 -6.506258 3.496495 34 4
20.865376 -6.576962 3.149836 44 4
21.163219 -6.679849 2.803608 32 4
21.341793 -6.743210 2.440972 47 4
21.123678 -6.674723 2.058927 51 4
21.335629 -6.749240 1.691930 55 4
24.095619 -7.672160 1.309786 0 4
18.208611 -5.715616 1.010528 53 4
17.152281 -5.366932 0.735685 55 4
16.801031 -5.252995 0.458313 57 4
16.888418 -5.285309 0.159681 58 4
16.320753 -5.098927 -0.080607 33 4
14.365904 -4.448834 -0.142914 25 4
12.734418 -3.906075 -0.176203 28 4
11.452041 -3.479455 -0.202238 31 4
10.262784 -3.083497 -0.196914 13 4
9.316321 -2.768385 -0.193539 9 4
8.536907 -2.508881 -0.189941 6 4
7.901345 -2.297306 -0.190213 5 4
7.342182 -2.111115 -0.185837 29 4
6.906827 -1.966271 -0.193700 7 4
6.498937 -1.830481 -0.193378 7 4
6.133080 -1.708661 -0.190809 22 4
5.816222 -1.603178 -0.190633 42 4
20.086449 -6.388748 2.729520 2 4
20.324409 -6.472491 2.389506 6 4
19.878483 -6.326523 2.018085 40 4
19.983625 -6.365654 1.671991 35 4
20.651705 -6.594210 1.320524 7 4
21.033176 -6.726557 0.950485 1 4
20.593981 -6.543241 4.223171 0 4
21.363684 -6.805087 3.954138 47 4
20.794537 -6.618421 3.513446 37 4
20.825657 -6.632853 3.148821 28 4
21.115589 -6.734149 2.802417 58 4
21.006111 -6.701421 2.425203 48 4
20.897913 -6.669075 2.052668 58 4
21.033739 -6.718727 1.688272 28 4
21.216591 -6.784251 1.318880 52 4
18.133673 -5.750518 1.012326 59 4
17.127724 -5.415124 0.736535 53 4
16.757919 -5.293726 0.460394 58 4
16.826338 -5.319967 0.163702 58 4
16.312176 -5.149665 -0.080804 28 4
14.355597 -4.492165 -0.142888 31 4
12.729577 -3.945555 -0.176800 31 4
11.444777 -3.513638 -0.202449 31 4
10.260500 -3.115209 -0.197872 12 4
9.307550 -2.794595 -0.193255 10 4
8.528955 -2.532644 -0.189684 6 4
7.897764 -2.320329 -0.190820 7 4
7.339174 -2.132379 -0.186531 28 4
6.889569 -1.981180 -0.190562 8 4
6.493126 -1.847849 -0.193190 8 4
6.127654 -1.724879 -0.190633 23 4
5.814746 -1.619631 -0.191648 41 4
19.956615 -6.411391 2.722397 47 4
21.802078 -7.041424 2.468750 22 4
20.006102 -6.435860 2.023749 1 4
20.043011 -6.452236 1.673879 14 4
21.380705 -6.910791 1.319038 3 4
20.231953 -6.524187 0.967797 3 4
20.599527 -6.613431 4.227661 0 4
20.883190 -6.713469 3.896684 33 4
20.792423 -6.686785 3.516159 39 4
20.770683 -6.683444 3.146459 44 4
21.067816 -6.788215 2.801227 57 4
20.965986 -6.757725 2.424895 58 4
20.873024 -6.730197 2.053220 59 4
20.857216 -6.728839 1.686542 42 4
21.017136 -6.787206 1.320085 0 4
18.123053 -5.806898 1.012751 58 4
17.084105 -5.456775 0.738142 53 4
16.737392 -5.341963 0.461154 57 4
16.801960 -5.367154 0.164824 60 4
16.307201 -5.201685 -0.081357 27 4
14.352678 -4.538043 -0.143716 30 4
12.717092 -3.982479 -0.176397 31 4
11.433655 -3.546531 -0.202090 34 4
10.254372 -3.145661 -0.198190 11 4
9.302423 -2.822052 -0.193675 9 4
8.532066 -2.560194 -0.191746 7 4
7.886707 -2.340820 -0.189740 6 4
7.332409 -2.152382 -0.186313 25 4
6.883281 -1.999772 -0.190359 11 4
6.487260 -1.865196 -0.193001 10 4
6.125809 -1.742326 -0.191569 24 4
5.805985 -1.633607 -0.190302 38 4
20.227037 -6.570402 2.743706 54 4
21.050417 -6.856596 2.431142 3 4
20.216415 -6.574599 2.032263 0 4
20.211744 -6.576907 1.677487 2 4
21.207523 -6.922797 1.320172 25 4
20.778637 -6.779530 0.956374 15 4
22.127161 -7.204044 4.453829 4 4
21.027273 -6.832248 3.918345 26 4
20.850313 -6.775814 3.525395 1 4
20.945604 -6.812514 3.164709 0 4
21.352150 -6.955882 2.823648 87 4
20.921926 -6.812547 2.424391 47 4
20.802568 -6.775664 2.052230 53 4
20.888891 -6.809322 1.688054 0 4
25.667805 -8.454593 1.307469 49 4
17.885319 -5.785288 1.018016 55 4
16.987461 -5.480010 0.741854 55 4
16.769590 -5.408314 0.458836 56 4
16.781214 -5.415538 0.165660 60 4
16.286985 -5.248535 -0.080469 26 4
14.338324 -4.580059 -0.143255 28 4
12.708242 -4.020657 -0.176490 30 4
11.437401 -3.584555 -0.203999 35 4
10.248143 -3.176105 -0.198506 12 4
9.293483 -2.848219 -0.193387 10 4
8.520245 -2.582661 -0.190711 6 4
7.882981 -2.363821 -0.190343 5 4
7.329264 -2.173638 -0.187004 33 4
6.884267 -2.020883 -0.192112 8 4
6.481339 -1.882526 -0.192811 8 4
6.120276 -1.758522 -0.191391 24 4
5.808017 -1.651305 -0.192495 42 4
20.010124 -6.562774 2.730416 2 4
20.417160 -6.707654 2.399648 0 4
20.070955 -6.591671 2.028674 45 4
19.616554 -6.438025 1.669161 4 4
21.178072 -6.983606 1.320895 22 4
20.345394 -6.698681 0.965830 16 4
21.598698 -7.095543 4.380834 30 4
21.212093 -6.966261 3.945268 38 4
20.892794 -6.860070 3.533010 19 4
21.165110 -6.958384 3.187032 0 4
22.227743 -7.330345 2.888231 0 4
20.889044 -6.871082 2.424486 51 4
20.954899 -6.897987 2.058849 55 4
25.503994 -8.479439 1.761339 58 4
25.573055 -8.508425 1.308518 64 4
17.715897 -5.785850 1.021820 76 4
16.879505 -5.498756 0.746016 53 4
16.692123 -5.436896 0.462904 56 4
16.798000 -5.476949 0.163603 58 4
16.292965 -5.304475 -0.082092 23 4
14.331348 -4.624646 -0.143647 29 4
12.695521 -4.057514 -0.176082 32 4
11.422317 -3.616121 -0.203067 31 4
10.245545 -3.207842 -0.199455 12 4
9.288178 -2.875655 -0.193803 9 4
8.512060 -2.606371 -0.190449 6 4
7.871796 -2.384241 -0.189261 5 4
7.322370 -2.193611 -0.186783 29 4
6.877855 -2.039458 -0.191906 9 4
6.475365 -1.899837 -0.192619 7 4
6.111066 -1.773428 -0.190100 23 4
5.799165 -1.665237 -0.191147 42 4
20.015724 -6.631567 2.732960 3 4
21.595095 -7.188051 2.463556 23 4
20.306692 -6.741305 2.038119 28 4
20.230339 -6.718556 1.679773 14 4
20.872871 -6.947721 1.322389 35 4
21.052572 -7.014848 0.951006 6 4
20.771816 -6.879404 4.264109 0 4
21.246281 -7.049151 3.953128 48 4
21.043882 -6.982706 3.552456 40 4
22.516428 -7.501439 3.311155 24 4
22.212084 -7.399502 2.889509 15 4
20.814510 -6.914965 2.422397 7 4
20.948170 -6.965857 2.060063 28 4
21.211763 -7.062311 1.695191 17 4
21.140888 -7.041652 1.321643 0 4
18.025923 -5.953477 1.015418 56 4
16.831938 -5.538054 0.747772 55 4
16.697538 -5.494151 0.462134 55 4
16.712931 -5.502820 0.169367 60 4
16.276194 -5.352577 -0.081556 25 4
14.327977 -4.670553 -0.144465 33 4
12.682684 -4.094330 -0.175672 31 4
11.395933 -3.643682 -0.200434 31 4
10.239114 -3.238281 -0.199767 12 4
9.286497 -2.904395 -0.194921 11 4
8.514905 -2.633974 -0.192506 6 4
7.875301 -2.409822 -0.191546 5 4
7.315413 -2.213561 -0.186561 42 4
6.871385 -2.058014 -0.191699 7 4
6.469335 -1.917129 -0.192426 5 4
6.109058 -1.790859 -0.191032 22 4
5.793876 -1.680406 -0.190978 46 4
19.998501 -6.692486 2.733897 1 4
20.547791 -6.890563 2.410161 0 4
20.387135 -6.837841 2.042287 24 4
20.329746 -6.821581 1.682352 3 4
20.933857 -7.039467 1.322861 5 4
20.189749 -6.780056 0.969593 2 4
20.888311 -6.989977 4.285018 56 4
21.310108 -7.142888 3.964813 40 4
21.280704 -7.136799 3.581296 58 4
21.026901 -7.051482 3.179988 1 4
20.687162 -6.935696 2.783062 0 4
21.011105 -7.054286 2.434635 17 4
20.888443 -7.015094 2.059473 60 4
21.132870 -7.105719 1.695011 50 4
25.534105 -8.667950 1.310200 54 4
18.086256 -6.034983 1.014334 54 4
16.784281 -5.577107 0.749530 55 4
16.638756 -5.528800 0.465105 58 4
16.808325 -5.592246 0.161241 56 4
16.266779 -5.403292 -0.081734 24 4
14.316955 -4.713822 -0.144423 33 4
12.677211 -4.133765 -0.176254 31 4
11.388134 -3.677747 -0.200633 28 4
10.228862 -3.267388 -0.199440 11 4
9.273589 -2.929191 -0.193923 10 4
8.502863 -2.656350 -0.191467 7 4
7.867662 -2.431508 -0.191302 6 4
7.315732 -2.236107 -0.188157 44 4
6.868510 -2.077853 -0.192469 7 4
6.466888 -1.935701 -0.193277 5 4
6.103373 -1.807001 -0.190851 25 4
5.792137 -1.696846 -0.191987 44 4
19.939732 -6.738612 2.731883 0 4
19.999229 -6.763841 2.382981 0 4
20.041712 -6.783012 2.031851 16 4
21.294949 -7.234832 1.698644 32 4
21.785423 -7.414463 1.321192 8 4
20.917645 -7.108388 0.954345 16 4
20.750448 -7.011016 4.268780 12 4
21.324909 -7.219775 3.970305 42 4
21.036961 -7.121509 3.557948 55 4
21.646561 -7.343069 3.238563 32 4
20.706564 -7.012139 2.786716 57 4
21.026413 -7.130451 2.437335 48 4
20.926493 -7.098983 2.062248 48 4
21.117931 -7.171579 1.695844 50 4
25.450212 -8.724762 1.311225 63 4
18.048342 -6.081901 1.015341 55 4
16.744061 -5.618610 0.750990 55 4
16.632553 -5.581990 0.465002 57 4
16.745577 -5.625797 0.165274 57 4
16.257196 -5.454001 -0.081909 24 4
14.302047 -4.755726 -0.143949 32 4
12.660399 -4.169182 -0.175341 33 4
11.372770 -3.709122 -0.199697 27 4
10.218519 -3.296464 -0.199112 11 4
9.271724 -2.957931 -0.195038 9 4
8.498140 -2.681335 -0.191972 7 4
7.859957 -2.453170 -0.191057 5 4
7.304977 -2.254716 -0.187021 38 4
6.869217 -2.099010 -0.194214 8 4
6.464377 -1.954276 -0.194127 7 4
6.101251 -1.824430 -0.191782 24 4
5.783155 -1.710695 -0.190637 47 4
22.220072 -7.627103 2.897408 26 4
21.454859 -7.355794 2.461958 2 4
19.990170 -6.831882 2.031494 2 4
21.399981 -7.344670 1.701398 29 4
21.272892 -7.303103 1.323249 8 4
21.053146 -7.228008 0.951701 4 4
20.993008 -7.167950 4.308296 4 4
22.841753 -7.837052 4.167724 20 4
20.962004 -7.165385 3.552950 36 4
20.697071 -7.074269 3.155682 60 4
20.714417 -7.084713 2.789570 26 4
21.018890 -7.198651 2.438847 59 4
21.283878 -7.298471 2.076037 72 4
21.095253 -7.234701 1.696563 50 4
25.373730 -8.783850 1.312230 29 4
18.036631 -6.138153 1.015791 56 4
16.741327 -5.673504 0.750954 56 4
16.581099 -5.618892 0.467536 60 4
16.652763 -5.648146 0.171619 54 4
16.247446 -5.504703 -0.082080 24 4
14.290749 -4.798937 -0.143901 30 4
12.654675 -4.208593 -0.175919 31 4
11.353589 -3.739087 -0.198192 26 4
10.211797 -3.326853 -0.199417 12 4
9.266059 -2.985345 -0.195446 10 4
8.493335 -2.706317 -0.192477 8 4
7.852182 -2.474808 -0.190811 6 4
7.297830 -2.274611 -0.186795 27 4
6.862561 -2.117538 -0.194004 7 4
6.458178 -1.971534 -0.193931 7 4
6.099070 -1.841863 -0.192710 24 4
5.784904 -1.728433 -0.192823 37 4
22.027174 -7.632203 2.886063 45 4
21.390297 -7.404889 2.460500 40 4
21.362223 -7.399027 2.080267 4 4
21.564648 -7.477148 1.705123 28 4
21.328720 -7.395513 1.323769 4 4
1.001962 0.016405 1.377715 0 4
21.599796 -7.458947 4.401418 46 4
21.361126 -7.376747 3.982263 35 4
20.699972 -7.140917 3.527543 15 4
20.817024 -7.187716 3.169258 52 4
20.774511 -7.176507 2.796197 46 4
21.007381 -7.265509 2.440164 52 4
21.035406 -7.279996 2.068990 56 4
23.139168 -8.050941 1.730194 2 4
25.439919 -8.894615 1.312858 58 4
17.757990 -6.097069 1.021909 59 4
16.745914 -5.731179 0.750623 54 4
16.574587 -5.671969 0.467440 57 4
16.653643 -5.704207 0.170738 58 4
16.241270 -5.556767 -0.082606 23 4
14.275574 -4.840758 -0.143421 28 4
12.637635 -4.243916 -0.175000 31 4
11.352913 -3.775778 -0.199517 39 4
10.201267 -3.355874 -0.199085 11 4
9.256606 -3.011397 -0.195148 9 4
8.488447 -2.731295 -0.192978 7 4
7.844341 -2.496421 -0.190563 6 4
7.297932 -2.297171 -0.188387 27 4
6.859486 -2.137384 -0.194769 13 4
6.451923 -1.988772 -0.193733 8 4
6.089619 -1.856646 -0.191414 28 4
5.779417 -1.743557 -0.192650 39 4
21.486059 -7.508191 2.849674 0 4
21.366877 -7.468811 2.461238 7 4
21.286295 -7.443569 2.079187 39 4
21.180674 -7.409073 1.700112 3 4
21.481762 -7.524281 1.324043 36 4
21.648954 -7.590290 0.939530 6 4
22.338882 -7.802894 4.514281 5 4
20.797131 -7.242222 3.913735 35 4
20.770765 -7.236862 3.538462 36 4
21.112305 -7.366542 3.198773 52 4
20.860447 -7.278380 2.804719 57 4
21.059397 -7.355796 2.444879 0 4
19.365173 -6.737037 2.012751 0 4
25.215664 -8.893892 1.764579 53 4
25.348000 -8.947834 1.313910 58 4
17.689924 -6.131719 1.023551 65 4
16.712790 -5.775113 0.751792 54 4
16.511686 -5.704330 0.470634 59 4
16.639353 -5.754804 0.171017 55 4
16.223705 -5.604705 -0.082052 24 4
14.267730 -4.885288 -0.143795 31 4
11.406893 -3.830484 -0.011989 0 4
11.340968 -3.808380 -0.199141 37 4
10.194350 -3.386232 -0.199386 12 4
9.254457 -3.040154 -0.196255 8 4
8.479796 -2.754906 -0.192706 7 4
7.843764 -2.520730 -0.191996 6 4
7.283347 -2.314335 -0.186338 20 4
6.849072 -2.154531 -0.193578 7 4
6.449234 -2.007334 -0.194579 8 4
6.087329 -1.874065 -0.192340 24 4
5.770298 -1.757331 -0.191296 38 4
21.241541 -7.490502 2.834531 47 4
21.230892 -7.490960 2.455991 8 4
21.259008 -7.505800 2.079796 37 4
21.160997 -7.473783 1.700907 24 4
21.502968 -7.605296 1.324674 32 4
21.538755 -7.623062 0.942112 33 4
21.478048 -7.560257 4.391970 39 4
21.168983 -7.450344 3.965104 37 4
21.132185 -7.441141 3.581251 43 4
21.746733 -7.673351 3.259159 2 4
20.710201 -7.293427 2.796285 47 4
20.901299 -7.368640 2.438422 58 4
19.336370 -6.791852 2.013161 53 4
19.357670 -6.803748 1.671996 0 4
22.087854 -7.822740 1.323160 56 4
17.767992 -6.220378 1.022093 56 4
16.717005 -5.832839 0.751471 54 4
16.486166 -5.750290 0.471639 61 4
16.658546 -5.817904 0.168702 53 4
16.209724 -5.653981 -0.081854 24 4
14.263464 -4.931206 -0.144593 32 4
11.376182 -3.856302 -0.009124 63 4
11.332630 -3.842330 -0.199328 40 4
10.187334 -3.416581 -0.199684 12 4
9.244833 -3.066169 -0.195953 10 4
8.467396 -2.777114 -0.191659 6 4
7.835778 -2.542316 -0.191745 7 4
7.279660 -2.335529 -0.187017 15 4
6.842241 -2.172996 -0.193363 6 4
6.442867 -2.024544 -0.194379 6 4
6.077785 -1.888788 -0.191042 30 4
5.771878 -1.775098 -0.193478 40 4
21.262699 -7.570725 2.838506 8 4
21.076267 -7.505320 2.449741 45 4
20.898367 -7.443023 2.068837 6 4
21.163584 -7.546872 1.702070 36 4
21.452715 -7.659812 1.325494 1 4
21.458506 -7.666465 0.944058 42 4
20.938175 -7.431567 4.316660 44 4
21.476479 -7.637225 4.008381 51 4
21.123549 -7.509749 3.583623 50 4
21.166279 -7.530182 3.209397 59 4
20.675919 -7.350992 2.796200 38 4
20.964037 -7.463268 2.443747 47 4
21.575930 -7.697052 2.092374 48 4
19.332411 -6.859941 1.672610 43 4
25.178865 -9.058427 1.315979 63 4
17.718374 -6.261783 1.023345 63 4
16.683596 -5.876588 0.752645 54 4
16.467987 -5.798958 0.472208 60 4
16.569210 -5.840442 0.174761 54 4
16.195583 -5.703224 -0.081653 24 4
14.247874 -4.972940 -0.144104 33 4
11.345411 -3.881965 -0.006256 128 4
11.327886 -3.877663 -0.200079 51 4
10.180218 -3.446918 -0.199980 12 4
9.238810 -3.093545 -0.196353 9 4
8.469615 -2.804820 -0.193702 5 4
7.827724 -2.563877 -0.191493 5 4
7.275901 -2.356722 -0.187694 15 4
6.838980 -2.192811 -0.194125 8 4
6.443668 -2.044469 -0.196267 8 4
6.071792 -1.904832 -0.190854 26 4
5.762669 -1.788826 -0.192123 34 4
20.996107 -7.542486 2.821731 5 4
21.467295 -7.725151 2.472674 8 4
21.013176 -7.557791 2.074389 43 4
21.184610 -7.627133 1.703540 38 4
21.364920 -7.699914 1.326411 8 4
21.322098 -7.688171 0.947191 34 4
20.992512 -7.523303 4.328889 27 4
21.106768 -7.570902 3.964674 49 4
21.334307 -7.661311 3.610115 49 4
21.026880 -7.549678 3.199626 40 4
20.660133 -7.415469 2.797466 54 4
21.564447 -7.761901 2.477872 60 4
21.611420 -7.784225 2.095216 41 4
19.318201 -6.920290 1.673408 54 4
25.180168 -9.145660 1.316798 51 4
16.946949 -6.029292 1.039888 3 4
16.657541 -5.923020 0.753523 58 4
16.453390 -5.848986 0.472563 58 4
16.513456 -5.875226 0.178222 54 4
16.185007 -5.753849 -0.081806 23 4
14.247025 -5.020280 -0.145324 31 4
11.340549 -3.917353 -0.006866 128 4
11.315621 -3.910187 -0.199696 42 4
10.169312 -3.475839 -0.199639 12 4
9.229018 -3.119511 -0.196047 10 4
8.460734 -2.828371 -0.193424 6 4
7.823256 -2.586808 -0.192081 7 4
7.268433 -2.376525 -0.187461 16 4
6.832029 -2.211244 -0.193907 8 4
6.433578 -2.060282 -0.195019 10 4
6.072927 -1.923602 -0.192888 27 4
5.764132 -1.806613 -0.194303 36 4
21.113939 -7.659218 2.832724 12 4
21.689190 -7.883375 2.486639 30 4
21.381411 -7.770383 2.088816 40 4
22.490456 -8.198921 1.725837 36 4
21.161257 -7.695236 1.327615 6 4
21.484550 -7.823465 0.943994 33 4
21.268646 -7.700046 4.373975 54 4
21.119923 -7.647966 3.970203 39 4
21.086985 -7.639936 3.586339 59 4
21.066305 -7.636552 3.206138 52 4
20.606852 -7.465691 2.796039 54 4
21.592154 -7.846320 2.481437 62 4
19.043581 -6.877121 2.007242 0 4
19.363565 -7.003471 1.675180 35 4
19.364256 -7.007819 1.332080 1 4
17.342466 -6.238050 1.031703 106 4
16.620153 -5.965057 0.754852 56 4
16.434900 -5.897550 0.473139 58 4
16.632717 -5.976848 0.168134 56 4
16.170544 -5.803037 -0.081597 23 4
14.231155 -5.061962 -0.144829 32 4
11.350389 -3.958441 -0.009460 0 4
11.303254 -3.942672 -0.199311 40 4
10.162001 -3.506144 -0.199932 12 4
9.226495 -3.148274 -0.197146 10 4
8.451778 -2.851893 -0.193145 7 4
7.807765 -2.605518 -0.190143 6 4
7.264536 -2.397707 -0.188135 16 4
6.828639 -2.231051 -0.194666 6 4
6.430648 -2.078831 -0.195860 6 4
6.063241 -1.938245 -0.191586 28 4
5.758399 -1.821672 -0.194124 41 4
20.884892 -7.643337 2.818633 46 4
21.690357 -7.958291 2.488815 36 4
21.397875 -7.850128 2.091015 48 4
21.315296 -7.822834 1.707958 33 4
20.957827 -7.689355 1.328810 4 4
21.176317 -7.778247 0.950763 43 4
20.826342 -7.602821 4.312854 35 4
20.732473 -7.571237 3.924075 43 4
20.825146 -7.611372 3.560915 53 4
20.580944 -7.521832 3.164793 25 4
20.825306 -7.620383 2.814315 47 4
21.317595 -7.814601 2.468795 38 4
19.018105 -6.932269 2.007788 51 4
19.203365 -7.007806 1.673624 49 4
18.935375 -6.908406 1.333766 62 4
17.919621 -6.519976 1.019685 59 4
16.571468 -6.002594 0.756627 52 4
16.405085 -5.941734 0.474373 58 4
16.487328 -5.977035 0.178518 58 4
16.155922 -5.852190 -0.081385 23 4
14.218864 -5.105031 -0.144758 29 4
12.584986 -4.474553 -0.176399 29 4
11.301860 -3.979415 -0.200621 38 4
10.143544 -3.532149 -0.198317 11 4
9.220201 -3.175627 -0.197540 11 4
8.446407 -2.876810 -0.193636 6 4
7.806801 -2.629826 -0.191568 5 4
7.260571 -2.418888 -0.188807 18 4
6.825181 -2.250858 -0.195423 6 4
6.416861 -2.093179 -0.193568 6 4
6.064253 -1.957034 -0.193618 25 4
5.756180 -1.838102 -0.195122 44 4
20.957430 -7.743251 2.826403 42 4
21.583290 -7.991282 2.485187 7 4
21.462473 -7.948905 2.094918 16 4
21.096777 -7.811084 1.705563 32 4
22.044149 -8.184867 1.326880 0 4
20.738163 -7.680315 0.960272 43 4
20.769035 -7.651943 4.308670 5 4
20.808475 -7.671790 3.937736 22 4
20.990231 -7.746911 3.582528 52 4
21.367001 -7.897884 3.239570 58 4
20.830965 -7.694075 2.817222 48 4
21.966770 -8.140484 2.505822 43 4
19.346382 -7.125108 2.020743 55 4
19.371277 -7.138953 1.677411 12 4
19.017891 -7.005371 1.334191 59 4
17.604664 -6.458314 1.026549 74 4
